# .PCD v0.7 - Point Cloud Data file format
VERSION 0.7
FIELDS x y z
SIZE 4 4 4
TYPE F F F
COUNT 1 1 1
WIDTH 197
HEIGHT 1
VIEWPOINT 0 0 0 1 0 0 0
POINTS 197
DATA ascii
0.042976499 0.098717503 0.0181666
-0.025472 0.085165098 0.052042902
0.0417828 0.101446 0.0181564
-0.021517999 0.115416 0.036564998
0.0531688 0.073372401 0.017622299
-0.0166719 0.128014 0.0194984
-0.0143198 0.128437 0.020341501
0.0480114 0.0447211 0.022762099
-0.024485501 0.0461464 0.051609602
-0.021496899 0.046196699 0.0522939
-0.016538501 0.045997798 0.050574601
-0.0155349 0.045964599 0.050215699
-0.0135288 0.0458914 0.049358599
-0.012533 0.045846801 0.048978999
-0.0115387 0.0458293 0.048671
-0.0095210997 0.045789 0.048015799
-0.0075058001 0.045741498 0.0474579
-0.0034973 0.0456721 0.0469862
-0.0024890001 0.0456504 0.046962202
-0.00049940002 0.045680199 0.047038902
0.040557399 0.104219 0.019164801
0.0032895999 0.131137 0.019485099
-0.0236453 0.090606198 0.0514725
-0.024461599 0.0474336 0.050724998
-0.0234912 0.047496099 0.051014502
-0.0224848 0.047463499 0.051092599
-0.0195149 0.047411401 0.050612401
-0.0144968 0.047235198 0.0484474
-0.0054955999 0.047296099 0.048594199
-0.000486 0.047440998 0.049520999
0.0035019 0.047439698 0.0500395
0.0054943999 0.047470901 0.050004501
0.0104364 0.047244102 0.0475563
0.035496 0.045407701 0.030343801
0.038502701 0.0454964 0.030778401
-0.024478801 0.0486839 0.049293399
0.0074883001 0.048893999 0.050504699
0.0094924001 0.048769299 0.0494463
0.032520801 0.046924502 0.0310812
-0.024499901 0.049902 0.046626601
-1.6e-05 0.13067199 0.021157101
0.0169167 0.12789799 0.020180101
-0.0088617997 0.12986501 0.020846199
-0.0234839 0.0509996 0.043558799
0.058561701 0.069248699 0.019596299
0.044435602 0.093156599 0.0191609
-0.022520499 0.114038 0.037331998
-0.0234219 0.053749301 0.042499401
-0.0077160001 0.130016 0.0212618
0.039464399 0.107011 0.018171201
-0.0224887 0.120777 0.030679399
-0.022461301 0.12203 0.0284859
0.0216673 0.125834 0.020504801
-0.023060801 0.059412401 0.043379899
-0.0100751 0.12960701 0.0204184
-0.024019901 0.053737901 0.0416895
-0.023623601 0.0593674 0.042518102
0.044079602 0.045078401 0.027193399
0.026322899 0.122689 0.019384099
0.033028401 0.116174 0.020489501
0.0467625 0.0462832 0.026631599
0.0492456 0.072812103 0.0176064
-0.021597 0.124211 0.0236359
-0.021510599 0.119492 0.0328652
0.0147905 0.12882499 0.020821899
-0.0017016 0.13040601 0.0219933
0.028536201 0.120755 0.020214699
0.0303372 0.119206 0.019464601
0.031701401 0.117733 0.0199863
-0.021789299 0.122494 0.028000399
-0.0071268999 0.13023899 0.020024801
0.040111899 0.105635 0.0181717
-0.0205044 0.11679 0.036035098
-0.001113 0.130629 0.0207594
0.038603999 0.108395 0.0191762
0.0251748 0.123444 0.0203849
0.043717701 0.045728099 0.028309099
0.035590801 0.113068 0.018582599
0.044181898 0.094548397 0.0191589
0.0088638002 0.130684 0.020080799
-0.0223256 0.063745901 0.045369402
0.0079349 0.130935 0.019736201
0.0166077 0.12846901 0.0186355
0.043340601 0.0973216 0.0191637
0.023685001 0.124697 0.0198268
0.031383101 0.11825 0.0184294
0.0190905 0.12706199 0.019552501
0.022476001 0.125337 0.020807
0.0244484 0.124114 0.020114999
-0.0192069 0.125855 0.0229991
0.034028701 0.115127 0.019437499
-0.0235187 0.055183802 0.042556699
0.0212529 0.12620001 0.0189269
-0.0241255 0.089258999 0.0519927
-0.0240991 0.070891403 0.046900898
-0.024503199 0.096016899 0.044275299
-0.023481499 0.097449496 0.044821002
-0.024416599 0.093190201 0.047943201
0.026653901 0.122169 0.020940101
-0.023491301 0.103006 0.043454502
-0.024481 0.104364 0.0426891
-0.0235023 0.105779 0.042128202
0.0098385001 0.130485 0.020432601
-0.0247603 0.0865587 0.0527086
-0.0234912 0.107132 0.041450098
0.0107636 0.130209 0.0207729
-0.0235066 0.108523 0.040607501
-0.0256026 0.083794601 0.0522209
-0.0235014 0.109891 0.0398372
-0.0048789 0.13044199 0.020837501
0.013918 0.129208 0.020503599
0.039474599 0.045909099 0.0309432
0.0125996 0.045941401 0.044346102
0.0167377 0.046184599 0.043266501
0.017751301 0.046234202 0.042963199
0.0187045 0.046258699 0.0425837
0.023872901 0.046331201 0.039521299
0.027114199 0.046333302 0.037179299
0.032383502 0.046075199 0.0307026
0.041204199 0.046737999 0.0312341
-0.018702 0.045933899 0.0516744
0.0109534 0.0475021 0.0472035
0.0141656 0.047534298 0.044818401
0.0149498 0.047502398 0.044210799
0.0193551 0.047597501 0.0417872
0.0203005 0.047637001 0.041402001
0.0212154 0.047650099 0.040967699
0.022925099 0.047673099 0.039919
0.0246905 0.0477085 0.038959902
0.028110901 0.047762401 0.036874399
0.0295798 0.047722001 0.0354768
0.0307633 0.047627501 0.033661399
-0.0249827 0.091847397 0.0485489
-0.0250124 0.0782139 0.051805101
0.0099087004 0.048971001 0.049251601
-0.024959199 0.076712303 0.050372001
-0.0037835999 0.13049801 0.0212315
-0.025146401 0.0824617 0.053211499
0.034350201 0.114842 0.0181324
0.043816499 0.095935501 0.0191615
-0.024514901 0.081109703 0.054032501
-0.023196399 0.065116502 0.044758201
0.057943702 0.0700837 0.019376799
0.0541155 0.073132902 0.017974
-0.024804 0.073763497 0.0475256
-0.024858199 0.0752289 0.048914
-0.0230106 0.0580182 0.0433839
-0.0240568 0.097228102 0.0446316
0.058779102 0.0686289 0.019915501
0.045432098 0.086188696 0.018168399
0.037992999 0.109314 0.0194453
-0.018734399 0.12697899 0.020223601
0.034976602 0.11396 0.018358501
0.045297898 0.087577403 0.018167401
0.046146601 0.077331901 0.0190905
0.056355599 0.072344601 0.017331799
0.0484812 0.0443317 0.021366
0.0420748 0.045791801 0.0297783
-0.023162 0.095832802 0.045192398
-0.022483399 0.068134896 0.048192501
0.050398599 0.044607501 0.017210601
0.0522184 0.046178699 0.0182078
0.0537831 0.047740102 0.019204101
0.054138102 0.0477755 0.0182012
0.054155901 0.047754899 0.017206
0.056282502 0.050817799 0.020186599
0.0569923 0.050889201 0.017185399
-0.024519401 0.087912299 0.052427001
0.058694299 0.055235401 0.019179201
0.058966599 0.055242699 0.017183
-0.024160299 0.066525303 0.044272002
0.059507702 0.056705602 0.0171693
0.059562899 0.058084 0.019178599
0.043416299 0.046417899 0.029498801
0.0010778999 0.13070899 0.0215491
0.041209001 0.10285 0.018165899
0.060349401 0.060912099 0.017185699
-0.019998301 0.126616 0.0197793
0.060464099 0.062314399 0.017178999
0.060067002 0.063670799 0.0191758
0.0603421 0.065084703 0.0181826
0.0594927 0.066407003 0.020186
0.060173102 0.066455796 0.0181654
0.059075002 0.067744203 0.0201625
-0.024878699 0.079661399 0.0530244
0.049921099 0.0443554 0.017872401
0.0451716 0.088978201 0.018164299
-0.022560799 0.0608496 0.044244502
0.0038008001 0.130941 0.021096701
0.042211801 0.100079 0.019164599
0.045965299 0.080628902 0.018177001
0.036212198 0.112176 0.018805901
0.045817699 0.082013801 0.018172899
-0.022637101 0.0622591 0.044291299
0.045458 0.084791698 0.019171
-0.0124153 0.12913799 0.0195683
-0.0174802 0.12736399 0.020673599
