# .PCD v0.7 - Point Cloud Data file format
VERSION 0.7
FIELDS x y z
SIZE 4 4 4
TYPE F F F
COUNT 1 1 1
WIDTH 267
HEIGHT 1
VIEWPOINT 0 0 0 1 0 0 0
POINTS 267
DATA ascii
-0.025508299 0.112568 0.036676701
-0.0351879 0.125718 0.0201989
-0.064596303 0.043007299 0.035823401
-0.052110601 0.0503642 0.023634899
-0.026682001 0.077983201 0.047806699
-0.085214101 0.080592297 0.0204766
-0.071334198 0.065071002 0.021642299
-0.060926899 0.15584899 0.021944899
-0.0608049 0.059600499 0.019786
-0.0542023 0.0435162 0.019691
-0.025527401 0.113962 0.035326499
-0.057496201 0.044018898 0.0444763
-0.0564899 0.0440403 0.044834498
-0.051713899 0.047497001 0.020656301
-0.054495201 0.044011701 0.045030199
-0.0535025 0.044035401 0.044940501
-0.052515201 0.0439969 0.044898201
-0.046512801 0.043840099 0.043120999
-0.044504501 0.043848298 0.042918999
-0.042500202 0.0437706 0.042053901
-0.0414888 0.043792602 0.042119499
-0.040498801 0.043751001 0.041817699
-0.041603599 0.125525 0.020863101
-0.049517602 0.0451863 0.042630602
-0.046498101 0.0451704 0.0419279
-0.039502099 0.045056202 0.041108102
-0.0264467 0.045990098 0.050565202
-0.025466001 0.0460651 0.050984401
-0.0506717 0.0501974 0.0196351
-0.0537204 0.049156401 0.032659099
-0.0284556 0.047226202 0.048808299
-0.0254423 0.047368199 0.050316598
-0.0623664 0.044397201 0.0296888
-0.026474399 0.048620202 0.048582502
-0.0254896 0.049862999 0.0466034
-0.055641498 0.043673001 0.0216881
-0.090329498 0.15022901 0.021123299
-0.025469201 0.050938599 0.043407898
-0.0244489 0.052186999 0.041371401
-0.031888898 0.124978 0.0199371
-0.0224768 0.123487 0.024808601
-0.030325999 0.045000002 0.049631398
-0.057586499 0.0586919 0.0194779
-0.0776245 0.070313603 0.0210685
-0.024488799 0.120706 0.0294035
-0.0251991 0.053665102 0.040037502
-0.076884001 0.155644 0.0221655
-0.089382797 0.091606803 0.020428799
-0.0274333 0.080828398 0.0484505
-0.094211303 0.120123 0.0212925
-0.091649003 0.146116 0.022147801
-0.0258097 0.076632701 0.0484243
-0.025282901 0.075188398 0.047942098
-0.052430999 0.050396901 0.0246465
-0.0245336 0.118082 0.032527398
-0.094614498 0.122826 0.0212791
-0.078567296 0.071660802 0.021463901
-0.0512591 0.0544504 0.020622199
-0.093308501 0.117399 0.0213072
-0.023546699 0.119499 0.031653699
-0.061344501 0.0434338 0.042412002
-0.063992098 0.060572699 0.020032
-0.0807961 0.074770898 0.020550201
-0.090196297 0.136492 0.0222062
-0.032595899 0.124521 0.0211556
-0.0265911 0.123944 0.0203778
-0.0247501 0.057894301 0.040863801
-0.054245699 0.0574384 0.01981
-0.057641499 0.155076 0.0216791
-0.068341799 0.062509097 0.0209713
-0.051022999 0.051637001 0.020628201
-0.0251882 0.121015 0.028308799
-0.051623002 0.053108301 0.0226238
-0.051390201 0.053079098 0.0216216
-0.047414798 0.13377801 0.0200381
-0.054090999 0.15276299 0.021557899
-0.072337203 0.156305 0.0208189
-0.0264927 0.085079499 0.050263401
-0.064488001 0.156133 0.0221359
-0.088923998 0.15154099 0.021100501
-0.0245528 0.116739 0.033582699
-0.0853981 0.109039 0.0213496
-0.0872247 0.15247899 0.0216964
-0.023566101 0.115415 0.035366699
-0.024565799 0.115393 0.0346209
-0.062909201 0.15614399 0.021237999
-0.065237701 0.041952901 0.033704501
-0.060123499 0.044743702 0.042568401
-0.088709101 0.098331802 0.021382101
-0.026647501 0.090455502 0.047423501
-0.032485999 0.044905901 0.047540199
-0.0256136 0.070760101 0.044179499
-0.053714398 0.049134299 0.0296614
-0.063712299 0.044575401 0.033687498
-0.054596499 0.0575496 0.019612599
-0.0519257 0.056316901 0.0201359
-0.064599901 0.043299198 0.034714799
-0.025876099 0.079603203 0.051228601
-0.027498299 0.093224697 0.044764299
-0.05996 0.047084998 0.038114298
-0.0532423 0.046246 0.022673501
-0.058736801 0.043447498 0.044084098
-0.065447502 0.041486599 0.034009501
-0.068548098 0.15642899 0.020685799
-0.0274872 0.094655 0.0450969
-0.0246982 0.055105701 0.040902801
-0.091439702 0.143364 0.021163899
-0.022994701 0.122243 0.0275866
-0.0274981 0.096011199 0.0443229
-0.089381203 0.113196 0.021713899
-0.0254927 0.097412199 0.044108301
-0.058899201 0.059365802 0.0203903
-0.057758301 0.047918301 0.035950001
-0.094461299 0.121476 0.021283399
-0.0537237 0.047713898 0.025666701
-0.087876998 0.0990467 0.023378201
-0.024293 0.124271 0.0211991
-0.0844521 0.15345199 0.0225801
-0.085663401 0.1104 0.022351099
-0.031759299 0.0449779 0.048225999
-0.0254848 0.100235 0.044205599
-0.059553999 0.155543 0.0209921
-0.053239301 0.044833101 0.0206817
-0.046181899 0.130936 0.022023899
-0.0616474 0.0458147 0.038435601
-0.0254901 0.101602 0.043588899
-0.052252401 0.056616701 0.024541499
-0.024429001 0.062146999 0.0418364
-0.094495296 0.125552 0.0212653
-0.051420402 0.054885302 0.020952201
-0.0255119 0.104394 0.042404801
-0.0256832 0.0878506 0.050771002
-0.0886136 0.096980497 0.0223931
-0.057085499 0.0480965 0.035664201
-0.025343901 0.069334902 0.043951299
-0.024902901 0.072275601 0.046250898
-0.0244963 0.105758 0.041976701
-0.024583001 0.063573703 0.041961201
-0.088803001 0.151599 0.021196401
-0.0728736 0.065978102 0.0205309
-0.025000799 0.067894503 0.043643899
-0.024481701 0.107102 0.0411704
-0.051739302 0.051719099 0.022631999
-0.063353397 0.044530101 0.031682
-0.056722499 0.043788999 0.0226896
-0.051048301 0.053036999 0.020613501
-0.0245088 0.108515 0.0403619
-0.086495601 0.084691003 0.0204775
-0.024509 0.109889 0.039600201
-0.044289399 0.126542 0.019839801
-0.0245152 0.111258 0.038591899
-0.046344701 0.12940601 0.0234768
-0.0820788 0.076518103 0.021828599
-0.030188 0.124116 0.0205603
-0.051513799 0.050289199 0.0216268
-0.079249397 0.072334103 0.0207326
-0.064864501 0.041891001 0.032664999
-0.056300201 0.154681 0.0207165
-0.052478299 0.044254102 0.044651501
-0.024658101 0.0664552 0.043338101
-0.054713201 0.15359101 0.0213081
-0.0579197 0.041094098 0.0197057
-0.070735097 0.15620799 0.022836599
-0.025758401 0.073639601 0.045628302
-0.052788299 0.049027301 0.0246529
-0.063587204 0.0445618 0.0346899
-0.062856302 0.043273099 0.039684601
-0.063372202 0.043219998 0.038798299
-0.0310065 0.124592 0.0202545
-0.063516997 0.041738302 0.0266777
-0.0248162 0.059303299 0.040903501
-0.076873899 0.0698402 0.021631099
-0.052881401 0.0447887 0.0196824
-0.064454898 0.043253999 0.032692499
-0.051730901 0.0489114 0.0216412
-0.056118701 0.042309999 0.0196965
-0.058570601 0.15535299 0.0213449
-0.0522791 0.049031399 0.035658501
-0.082324296 0.154364 0.0217732
-0.052075502 0.047541101 0.021652799
-0.056722499 0.042376399 0.020699101
-0.087232001 0.102325 0.0223672
-0.062281702 0.0458517 0.034683101
-0.064011998 0.043220699 0.030677199
-0.0604426 0.0470258 0.0346715
-0.057271499 0.0482006 0.036581699
-0.026159 0.091803603 0.046893299
-0.0906194 0.13924301 0.0211829
-0.092985302 0.13101 0.0212315
-0.051922198 0.0461016 0.019678
-0.0878269 0.087471999 0.021462999
-0.026277 0.0795343 0.0501986
-0.0792564 0.155246 0.0213567
-0.036269601 0.044751599 0.042815201
-0.0851762 0.106326 0.022375399
-0.0913122 0.13374799 0.0212171
-0.074194402 0.067888796 0.022136999
-0.082295902 0.077331901 0.0228488
-0.064905003 0.060764801 0.019667899
-0.040511899 0.125571 0.021245901
-0.0234471 0.125053 0.0200484
-0.092300303 0.13237201 0.0212228
-0.0456062 0.127883 0.0223049
-0.0487919 0.135536 0.020392099
-0.062140401 0.045822401 0.0356845
-0.070290104 0.063891001 0.0211244
-0.064459801 0.043279499 0.035714
-0.079831399 0.0733447 0.020561401
-0.0471876 0.131943 0.0231102
-0.036773 0.0446897 0.041946199
-0.063834503 0.043163698 0.0378429
-0.052585799 0.147787 0.0204037
-0.052389201 0.141597 0.0213852
-0.066181503 0.0615106 0.020512599
-0.024132799 0.056531101 0.0416958
-0.053174101 0.150869 0.021397799
-0.0274598 0.086380102 0.0483431
-0.0258992 0.089165501 0.049534999
-0.032977801 0.044886202 0.0466174
-0.067993 0.061927401 0.019780001
-0.093859203 0.11877 0.0212975
-0.0496962 0.137023 0.0203775
-0.061044499 0.045667 0.030681601
-0.0577811 0.047214299 0.040311899
-0.053845 0.0463107 0.023676399
-0.051135901 0.050247598 0.0206335
-0.052612402 0.143167 0.020408301
-0.080088504 0.073922597 0.0209531
-0.091235302 0.14885999 0.021131599
-0.052087799 0.048947498 0.0226481
-0.051983599 0.051749598 0.0236325
-0.090373598 0.13787 0.022184299
-0.0861938 0.104994 0.021364501
-0.050850999 0.13852701 0.021367
-0.059351601 0.047142901 0.038917001
-0.0623716 0.0433162 0.040630002
-0.088453099 0.088883303 0.0214341
-0.055124301 0.048280299 0.038911302
-0.0367225 0.125751 0.021120001
-0.0527854 0.146248 0.020394599
-0.0271626 0.083675496 0.049525399
-0.063372903 0.043131299 0.0286681
-0.057204999 0.048092801 0.032667
-0.061912902 0.045819402 0.037691001
-0.026667001 0.082336403 0.050497301
-0.056910802 0.0471914 0.040726501
-0.052826099 0.14933699 0.021410299
-0.065010898 0.041163001 0.0307556
-0.051677801 0.140064 0.021375701
-0.091374502 0.142001 0.021160699
-0.091293603 0.114724 0.021853199
-0.093479 0.129659 0.021240599
-0.0599651 0.046972301 0.033673599
-0.0890273 0.095644601 0.021399001
-0.062768303 0.04307 0.027669299
-0.0575663 0.048138399 0.034664098
-0.0528781 0.049083799 0.034662198
-0.056726702 0.15478 0.0220083
-0.063951202 0.156212 0.020868599
-0.0916005 0.147489 0.021144699
-0.050779801 0.0488052 0.019643901
-0.048450399 0.134772 0.021115201
-0.035839599 0.125396 0.021446399
-0.0751298 0.15599599 0.0213056
-0.027679101 0.1239 0.019991999
-0.085611902 0.081949197 0.020481501
-0.092285402 0.116039 0.0223382
